-0.0373313 0.124462 -0.0388214
-0.0539864 0.0418868 0.0176528
0.0316063 0.0259948 0.0379336
0.0336848 0.0273769 0.037512
0.0354733 0.0273669 0.0366087
0.0377018 0.0271072 0.0356737
0.0393222 0.0275565 0.0347033
0.041686 0.0273509 0.0333726
0.0449155 0.0273543 0.0319675
0.0469471 0.0273256 0.0304842
0.0481876 0.0270547 0.0298361
0.0509324 0.0274435 0.0286689
0.0521393 0.0259478 0.0274926
0.0538892 0.0274011 0.0261214
0.0552199 0.0262979 0.0241545
-0.0490601 0.0959333 0.0299099
0.0723956 0.0266297 0.0185949
0.0751295 0.0265763 0.0163136
0.0767998 0.0265059 0.0142152
0.0776316 0.0269794 0.0127915
-0.0239879 0.114701 -0.00811511
-0.0481517 0.0790558 0.0249388
-0.000761246 0.140781 -0.0255075
-0.0387071 0.112189 0.0166223
0.0628796 0.059417 -0.0140573
-0.0471426 0.0818164 0.028567
0.0518926 0.0628548 0.0266967
-0.00799949 0.129398 -0.0181535
0.0517986 0.0680855 0.0238688
-0.0520694 0.104501 0.0295984
-0.0705648 0.0920336 -0.0118835
0.0259762 0.0281774 0.0415701
0.0272502 0.0273315 0.0402959
0.0292138 0.0280511 0.0397627
0.0320119 0.0280517 0.0386049
0.0565193 0.0278422 0.0230665
-0.0334264 0.0985663 0.0159091
-0.022215 0.115417 -0.00904804
0.012976 0.131647 -0.0285975
0.00880056 0.138713 -0.0306014
-0.0018559 0.131406 -0.0219568
-0.0496825 0.100192 0.0287481
-0.0450796 0.0823873 0.02508
-0.0686361 0.0812469 -0.0121546
-0.00808625 0.125541 -0.0126646
-0.0414242 0.1095 0.0195437
-0.0259082 0.090603 0.00891638
-0.0360665 0.101406 0.0163105
-0.0586571 0.0740826 -0.0232875
0.038969 0.065413 0.0335607
0.0486285 0.0300967 0.0298801
0.0588755 0.0283222 0.0191067
0.0439549 0.0724967 0.0274017
0.0732939 0.0301678 0.0168999
0.0750415 0.0296947 0.015716
0.0765618 0.0302107 0.013769
0.0776322 0.0291266 0.0126413
0.0566948 0.0594268 0.0230553
-0.0544896 0.0627392 -0.0314075
-0.0313882 0.117796 -0.000194725
-0.0411623 0.112332 0.0197979
0.00286878 0.143969 -0.0279207
-0.00940785 0.128505 -0.0169945
-0.015313 0.120844 -0.0111052
0.0292557 0.030806 0.0408074
0.0306742 0.0308042 0.0402683
0.0323457 0.0307886 0.0391613
0.0341002 0.0307706 0.0382021
0.0358646 0.0307523 0.0372539
0.0378316 0.0309717 0.035992
0.0392087 0.0305774 0.0346404
0.0416298 0.0306986 0.0332316
0.0448892 0.0307054 0.0318854
0.0474264 0.030922 0.0306115
0.0511196 0.0306837 0.0286778
0.0543301 0.0306316 0.0262314
0.0567771 0.030548 0.0234663
0.0583171 0.0305589 0.0205391
0.0589481 0.0296801 0.0192242
-0.0742597 0.0919852 0.00236811
-0.0709832 0.109767 -0.000201607
0.00372371 0.128399 -0.0202141
-0.00627776 0.124113 -0.0134863
-0.00898821 0.0890922 -0.0197929
-0.0531697 0.0995295 0.0317596
-0.0437243 0.0880317 0.0263002
0.0442916 0.0589758 0.0335598
0.00488779 0.143953 -0.0294238
0.00387106 0.124675 -0.0227682
-0.0397256 0.083041 0.0211516
-0.0496439 0.0832744 0.0330894
-0.0451679 0.0852739 0.0279633
0.0562216 0.0581191 0.0242408
-0.0285589 0.116974 -0.00406011
0.0784751 0.0297222 0.0107571
0.0127168 0.134264 -0.0297114
0.0423399 0.0595277 0.0345736
0.0634992 0.0511763 -0.017349
0.0428326 0.0630835 0.0325692
0.0612262 0.0510965 -0.0225366
-0.0670304 0.0867814 -0.0174879
-0.00858956 0.123486 -0.0129048
-0.00234177 0.128468 -0.0187333
-0.0385251 0.0991709 0.019486
-0.0436845 0.0965154 0.0231849
-0.0279866 0.0906261 0.0123784
-0.0417381 0.0829494 0.0217036
-0.012667 0.118289 -0.0145209
0.0289295 0.0335036 0.0412117
0.0307916 0.0335209 0.0404505
0.0326596 0.0335002 0.0396879
0.0348934 0.0334902 0.0385579
0.0364538 0.0332544 0.0375913
0.0384271 0.0336936 0.0366636
0.0397357 0.0327362 0.0349186
0.0413995 0.0336157 0.033791
0.0425192 0.0326975 0.0327359
0.0447527 0.0333724 0.0316194
0.0475481 0.0333781 0.0304647
0.0489983 0.033386 0.0299837
0.0511129 0.0333659 0.028642
0.0542971 0.0333141 0.0261514
0.0568293 0.0332388 0.0235307
0.0583341 0.033153 0.0211417
0.0592199 0.0330765 0.0196375
0.0601359 0.0595451 -0.0190225
-0.0183973 0.129554 -0.0112355
0.0756049 0.032943 0.0131163
0.0772541 0.0332282 0.0105899
0.0470586 0.0635945 0.0302781
0.0115138 0.132771 -0.0277707
-0.0375054 0.0844099 0.0210384
-0.0372181 0.124947 -0.0562127
0.0653217 0.0512147 -0.011193
-0.0440703 0.0789092 0.0196722
-0.000331774 0.128457 -0.0192479
-0.011936 0.120474 -0.0132605
-0.044947 0.028945 0.00644752
-0.0462547 0.106537 0.0236083
0.00670152 0.134278 -0.0271816
-0.0698278 0.0593445 -0.000639737
-0.0660863 0.0740049 -0.000184769
-0.0713054 0.0815454 -0.00627774
0.057409 0.0489417 -0.0278996
-0.0643211 0.0865752 -0.0204425
-0.00690121 0.0561103 -0.0425996
-0.0298049 0.0990439 0.0111979
-0.00404741 0.144503 -0.0297273
-0.0451285 0.133582 -0.063119
-0.00604085 0.141784 -0.0193095
0.00594852 0.131337 -0.0244294
0.0411545 0.0688856 0.0299491
-0.0112174 0.12303 -0.0120238
0.00614135 0.128384 -0.0210043
-0.00130074 0.144088 -0.0237093
0.0156212 0.135537 -0.0348783
-0.0437565 0.0818849 0.0222425
-0.0462695 0.0802183 0.0239972
0.0290799 0.0361898 0.0414491
0.0310627 0.0362111 0.0409009
0.0327799 0.0361937 0.0398768
0.0356416 0.036194 0.038844
0.0389963 0.0361005 0.0372052
0.0419668 0.0360325 0.034341
0.0449925 0.0358552 0.0320112
0.0472698 0.0364177 0.0309534
0.0486737 0.0358462 0.0300536
0.0510944 0.0359743 0.0290132
0.054362 0.0360031 0.0262313
0.0568767 0.0359312 0.0235932
0.0585346 0.0358613 0.0214482
0.0594873 0.0358021 0.0200758
0.0607057 0.0357128 0.0181558
0.0620603 0.0358252 0.0157838
0.0465421 0.0685698 0.0273025
0.0403095 0.0659499 0.0325468
-0.0423401 0.0986247 0.0214815
0.00876457 0.12711 -0.0242977
-0.0590077 0.115293 -0.0174017
-0.0478196 0.0966083 0.0280372
-0.0311147 0.0352057 0.0220886
-0.0609098 0.0604275 -0.0259925
0.0479356 0.0782986 0.0215547
-0.046661 0.0832119 0.0293661
0.0376923 0.0369014 0.0383768
0.0409085 0.0368416 0.0359175
0.0438224 0.0367789 0.0329531
0.0526237 0.0367398 0.0282316
-0.06959 0.101687 -0.00638582
-0.0491897 0.142861 -0.0673211
-0.047234 0.0276825 0.000327317
0.0644451 0.0511973 -0.0142661
-0.0309009 0.0871576 0.0164574
-0.0381444 0.121631 -0.0534384
-0.00506819 0.0765447 -0.0334451
-0.0352573 0.130877 -0.0739742
-0.0627286 0.0444034 0.00568729
-0.0560886 0.115117 -0.0205115
-0.0099646 0.121212 -0.0138503
-0.00602913 0.121255 -0.0164628
-0.000242665 0.135826 -0.0252301
-0.00278893 0.144723 -0.0217119
-0.0459752 0.0986874 0.0241436
0.064498 0.0569362 -0.0113709
0.054595 0.0741388 0.0171289
0.0412544 0.0841191 -0.0211012
0.0293977 0.0389143 0.0419861
0.0316545 0.0391465 0.0412307
0.0327896 0.0386871 0.0405409
0.035637 0.0389319 0.0398092
0.0378545 0.0389309 0.0386399
0.039083 0.0389096 0.0377601
0.0410363 0.0390204 0.0365315
0.0425378 0.0385012 0.0347225
0.0442843 0.0391819 0.0337582
0.0457165 0.0386078 0.0329115
0.0480303 0.038713 0.0316833
0.051039 0.0387697 0.029459
0.0530274 0.0389804 0.028239
0.0547341 0.038608 0.0264153
0.0569632 0.0386255 0.0237138
0.0586529 0.0385647 0.0216512
0.0595928 0.0385063 0.0202447
0.0609292 0.0389256 0.0182705
0.0621549 0.0386528 0.0160874
-0.0690494 0.104103 0.00892354
0.0568416 0.0741784 -0.0136184
-0.0391897 0.115251 -0.0304133
-0.0322342 0.114753 0.00524789
-0.0372039 0.106553 0.0148414
-0.0446535 0.0993524 0.0224581
-0.039408 0.0957911 0.0216086
-0.0227843 0.0879529 -0.0282906
0.0495985 0.0394816 0.030962
0.0628643 0.0396045 0.0147973
0.0639023 0.0394977 0.0125769
0.0649602 0.0393604 0.00963283
-0.0313756 0.105458 0.006149
0.0208996 0.0754607 -0.0338549
-0.0167198 0.116863 -0.0125285
-0.0186865 0.121269 -0.0089217
-0.026696 0.111424 -0.00823748
-0.0452793 0.127912 -0.0601566
0.060446 0.0669944 0.0102142
-0.0370542 0.124755 -0.0411364
0.0295287 0.0422824 0.0421504
0.0326307 0.0416472 0.0415725
0.0354133 0.0416468 0.0403935
0.0375567 0.0416321 0.0390982
0.0393361 0.0416239 0.0381812
0.0415355 0.0416063 0.0369912
0.0430467 0.0415745 0.0355906
0.0449056 0.041453 0.0342434
0.0481609 0.0415404 0.0324583
0.05011 0.0417371 0.0311536
0.0514785 0.0413473 0.0297976
0.0532562 0.0414472 0.0282694
0.055051 0.0413993 0.0263919
0.0571457 0.0419982 0.0239863
0.058789 0.0419301 0.0218213
0.0596862 0.0418815 0.0203954
0.0607944 0.042187 0.0185744
-0.0237134 0.112186 -0.0115492
-0.0250485 0.112555 -0.00885897
-0.0386963 0.10619 0.0160065
-0.046196 0.100109 0.0237223
0.00684371 0.0702554 -0.0367392
0.0656814 0.0567588 -0.00207022
0.0604678 0.0565212 0.0181778
-0.0396695 0.111479 0.0179126
-0.0531459 0.127855 -0.0427299
0.0649445 0.0588868 -0.00709991
0.0464422 0.0422192 0.0334772
0.0621245 0.0423929 0.0165724
0.0629906 0.042321 0.0150164
0.0641629 0.0424253 0.0126013
0.0649269 0.0420979 0.0102983
0.0658486 0.0424716 0.00388278
0.0613533 0.068508 0.00327772
-0.0418178 0.106701 0.0186046
-0.0734307 0.0946665 0.00547972
0.0647552 0.0602707 -0.00608955
-0.000764519 0.138307 -0.0254955
0.062176 0.0535793 0.0156592
-0.046113 0.0827182 0.0277052
-0.0365202 0.128826 -0.0500623
0.0323358 0.0441908 0.0414336
0.0355102 0.045132 0.0401216
0.0380947 0.044974 0.0390005
0.0396958 0.0446559 0.0382878
0.0416576 0.0449793 0.0371667
0.043208 0.0449474 0.0358337
0.0449307 0.0449193 0.03442
0.0464882 0.0435698 0.0335419
0.0481969 0.044896 0.0324858
0.050343 0.044878 0.0311925
0.0518802 0.0448501 0.0298605
0.0529195 0.0448137 0.0286494
0.0546937 0.0447624 0.0267288
0.0654553 0.0424886 0.00669218
-0.0671118 0.101437 -0.0148005
0.0563309 0.0683111 0.0189176
-0.0373102 0.100011 0.01818
0.0535152 0.0621641 0.0255277
0.0449259 0.0811839 0.020858
-0.0575223 0.115138 -0.0191033
-0.0354493 0.10951 0.0135916
-0.0254199 0.115454 -0.00659757
-0.0580816 0.0364037 -0.00945762
-0.0513638 0.0938605 0.032967
0.0296839 0.0456109 0.0414052
0.0329529 0.0458712 0.0407432
0.0576121 0.0453491 0.0238145
0.0592358 0.0452897 0.0215866
0.0600196 0.0454696 0.0202849
0.0611505 0.0450307 0.0184448
0.0622857 0.0451325 0.0166184
0.0630357 0.0451779 0.0150843
0.0640806 0.0450385 0.0127115
0.0648744 0.0450619 0.00985501
0.030012 0.073544 -0.0320702
0.0547262 0.0627901 0.0236163
0.0563174 0.0629715 0.0216876
-0.0493142 0.0803318 0.0296829
0.00420876 0.129903 -0.0224029
0.0391213 0.0810022 0.0242473
-0.0627457 0.0826931 0.029329
0.0463157 0.0462346 0.0332015
-0.048776 0.146537 -0.0691311
0.0501417 0.0635532 0.0276361
0.0414979 0.0783214 0.0244212
-0.0337412 0.0999751 0.0153527
-0.0626726 0.0602393 -0.0239751
-0.0360664 0.131348 -0.0620273
-0.0691846 0.115302 -0.00600087
-0.0362982 0.128184 -0.0708972
0.0437943 0.0777734 0.0240022
-0.00331305 0.146189 -0.0289712
0.0244402 0.047608 0.0432701
0.0266549 0.0481905 0.0425394
0.0287637 0.0484984 0.0414375
0.0303975 0.0482704 0.0405986
0.0379759 0.0476785 0.0387849
0.0390211 0.0484706 0.038175
0.0414582 0.0483215 0.0367982
0.0432407 0.0483057 0.0358594
0.0448175 0.0482795 0.0345824
0.0461655 0.0482309 0.0329285
0.0480445 0.0482316 0.0321756
0.0503424 0.0482313 0.0311649
0.0518561 0.0481983 0.0297783
0.0529238 0.0481651 0.0286067
0.0547121 0.0481179 0.026717
0.057636 0.0480438 0.0237995
0.0592871 0.0479783 0.0216207
0.0598586 0.0479443 0.0206529
0.0612114 0.0477817 0.0185855
0.0623479 0.0481112 0.0167287
-0.0600899 0.0800156 0.0292642
-0.0738511 0.092062 0.0056166
-0.00188857 0.137817 -0.0247661
-0.0373777 0.094363 0.0211514
0.00302652 0.146188 -0.0276726
0.00206074 0.135141 -0.0327032
-0.0539328 0.0753017 -0.0265883
0.0622753 0.0511354 -0.0204386
0.0118472 0.135717 -0.0302605
-0.000233807 0.143248 -0.0252796
-0.0472505 0.0851151 0.0315914
0.0535385 0.0728248 0.0193444
0.0572625 0.0624924 0.0206729
-0.0591047 0.0708767 0.0148753
-0.0313061 0.0842803 0.015755
-0.0429649 0.0858912 0.0246263
-0.0682366 0.107015 -0.00599985
-0.0551134 0.0335894 -0.000251986
0.0651193 0.0561102 -0.0101313
-0.00331206 0.132871 -0.0225117
-0.0489264 0.0772056 0.0211972
-0.0430063 0.0715324 -0.0335121
0.00265494 0.129912 -0.0220992
0.0653869 0.0540182 -0.0106407
0.0569034 0.0660722 0.0192641
0.0264908 0.050955 0.0427904
0.0292418 0.0509755 0.0415749
0.0308589 0.0509554 0.0403724
0.0414252 0.0510021 0.0367239
0.0432246 0.0509887 0.035811
0.0447294 0.0509534 0.0344176
0.0462165 0.0509179 0.0329848
0.0481446 0.0509212 0.032342
0.050567 0.0509373 0.031532
0.0520479 0.0509002 0.0300876
0.0533299 0.0510863 0.0286439
0.0549241 0.0507075 0.0266307
0.0572431 0.0507343 0.0240774
0.058901 0.0506685 0.0219762
0.059796 0.0506205 0.0205201
0.0610071 0.0505499 0.0185974
0.0472787 0.0622732 0.0306823
0.0532348 0.0688026 0.0219282
-0.0404712 0.0908406 0.0238361
6.36298E-05 0.134346 -0.0246758
0.0342776 0.051603 0.0382899
0.0239504 0.0763729 -0.0325249
-0.0662862 0.112538 -0.00978213
0.053264 0.0635044 0.0250585
-0.0422255 0.0908455 0.0247997
-0.0480206 0.112563 -0.0362292
-0.0475774 0.143542 -0.0687126
0.0439016 0.0609532 0.0328525
0.0627666 0.0511539 -0.0193981
-0.0467567 0.093767 0.0289554
0.0305892 0.0538623 0.0405403
0.0326471 0.0536318 0.0394386
0.0341747 0.0535921 0.0380864
0.0416167 0.0534478 0.0363461
0.0427483 0.0538792 0.035618
0.0446175 0.0536243 0.0341898
0.0462601 0.0536046 0.0330543
0.0482397 0.0536192 0.0324895
0.0505445 0.0536155 0.0314586
0.0520685 0.0535849 0.030097
0.0535201 0.0535478 0.0285994
0.0551861 0.0534877 0.0265071
0.0571629 0.0534112 0.0239542
0.0588648 0.0534584 0.021285
0.0596301 0.0526152 0.0202168
0.0607386 0.0532735 0.018275
-0.0553467 0.118567 -0.0199257
-0.053172 0.126828 -0.0313144
-0.0539241 0.121302 -0.0197845
-0.0342555 0.0943076 0.0185737
-0.0344676 0.0843432 0.0182967
-0.0524338 0.103613 -0.0246213
-0.00231219 0.0815731 -0.0295656
-0.0534351 0.128131 -0.0367739
-0.0104213 0.12999 -0.017778
-0.0426385 0.0285614 0.0073211
0.0150047 0.137852 -0.0367094
0.0643859 0.0566024 0.00684472
-0.0372512 0.131182 -0.0500854
-0.0531904 0.115801 -0.025809
0.0479879 0.0648925 0.0288925
-0.0656018 0.0808371 -0.0153573
-0.0733909 0.0863002 -0.00389461
-0.0465034 0.148422 -0.0708781
0.0428649 0.0769547 0.0247975
-0.048595 0.0948421 -0.0268694
0.0192055 0.0609376 -0.0461558
-0.0234551 0.112186 -0.0138188
-0.0383859 0.118286 -0.0443737
0.0119069 0.141148 -0.0398012
-0.0699475 0.106801 0.0148955
0.0411462 0.0556709 0.0361703
0.0503579 0.0556124 0.0311145
0.0530706 0.0555621 0.0287966
-0.0286933 0.118432 -0.00427831
-0.0395194 0.115613 -0.0391224
-0.0311475 0.0942722 0.0159544
-0.0517999 0.0959622 0.0321759
-0.0713992 0.0981671 -0.0063716
-0.006317 0.140315 -0.0197726
-0.0113082 0.0622956 -0.0388453
0.000637351 0.123397 -0.0209146
0.0122291 0.129992 -0.0287731
-0.0363183 0.127272 -0.0520779
-0.0424807 0.104301 0.018133
-0.0462553 0.0630592 -0.0344934
-0.0527733 0.115816 -0.0279012
0.0146258 0.135296 -0.0369969
-0.0524295 0.0629532 -0.0325439
-0.0432708 0.0744413 -0.0318075
0.0071843 0.126792 -0.0256726
-0.0608293 0.109442 -0.0167646
0.0417604 0.00145056 -0.0142524
0.0403037 0.00111011 -0.0171328
0.0397517 0.00144651 -0.0199297
0.0394275 0.00144941 -0.0229618
0.0392566 0.00158504 -0.0257867
0.0374894 0.000125814 -0.0263544
0.0376936 0.000700563 -0.0283722
0.0376352 0.00172712 0.0264884
0.038255 0.001586 0.0246658
0.0391064 0.00156752 0.0220727
-0.0478027 0.115383 -0.0456559
-0.0378238 0.131141 -0.0471197
-0.0332968 0.139245 -0.0767698
-0.047479 0.0288119 0.00372539
-0.0370268 0.0631567 -0.0369703
0.061085 0.00398121 -0.00326516
0.0594143 0.00361306 -0.00628536
0.0592027 0.00441711 -0.00895071
0.0572247 0.00345645 -0.00896086
0.0415091 0.00235284 -0.0162282
0.0390306 0.00215611 -0.0285095
0.037518 0.00235619 -0.0317202
0.0332062 0.0880567 -0.0220552
0.0448675 0.0635102 -0.0324253
-0.0365551 0.127205 -0.047079
0.0400698 0.00328266 0.0247559
0.0417167 0.00377629 0.0219632
-0.0684751 0.0688212 -0.00644244
-0.0383732 0.118457 -0.036314
-0.0358233 0.142648 -0.0707766
-0.073118 0.0864062 0.0114254
-0.0554483 0.0916509 -0.0252907
-0.0461745 0.0885316 -0.0267285
0.0645273 0.00552486 0.000215167
0.0641231 0.00557014 -0.0029246
0.0629618 0.00549243 -0.006007
0.0616439 0.00538215 -0.00811429
0.0588851 0.00531143 -0.0112393
0.0565158 0.00457294 -0.0117533
-0.0268949 0.102608 -0.00556281
0.0430883 0.00371263 -0.0167182
0.0422245 0.00452882 -0.0196915
0.0408748 0.00367755 -0.0228309
0.0408451 0.00427502 -0.0260356
0.0405164 0.00441157 -0.0283745
0.0399336 0.00474177 -0.0306875
0.0389035 0.00359084 -0.0310332
0.0369269 0.00343485 -0.0332493
0.0346982 0.00237233 -0.034407
0.0129719 0.0626536 -0.0448266
-0.070781 0.0797705 0.0169391
-0.0368664 0.124913 -0.0531753
-0.00471905 0.0707682 -0.0376273
-0.0736606 0.0859103 -0.00066315
0.0405481 0.00475006 0.0263102
0.041602 0.00484001 0.0243976
-0.0689121 0.0800779 -0.00949701
-0.0487983 0.11102 -0.030618
-0.0284699 0.102454 0.00332493
-0.0355663 0.145668 -0.0740213
-0.0385222 0.118422 -0.0333159
-0.0339606 0.139365 -0.0737718
-0.0613719 0.100922 -0.0203956
0.0665409 0.00700221 0.00617075
0.066944 0.00689952 0.00311726
0.0676656 0.00725815 0.000377845
0.0672292 0.00727434 -0.00264982
0.0665651 0.00729143 -0.00467717
0.0656382 0.00717077 -0.00625704
0.064444 0.0077047 -0.00871135
0.0622706 0.00689482 -0.00951402
0.0597747 0.00683218 -0.0123229
0.050558 0.0666929 -0.0270623
-0.0653543 0.0982711 -0.0177429
0.0452414 0.00449483 -0.0160127
0.041868 0.0052083 -0.0227321
0.0415042 0.00520371 -0.0247599
0.0377682 0.00538638 -0.0338809
0.0297993 0.0885216 -0.0223641
-0.0692288 0.0626397 0.00216011
-0.0705041 0.08662 -0.0119264
-0.0695908 0.0865998 -0.0133549
-0.0359093 0.136111 -0.0649502
0.0150589 0.141206 -0.0406601
-0.0277245 0.105713 -0.00858901
-0.0336876 0.142549 -0.0768448
-0.0558124 0.0364659 0.00813431
-0.0292541 0.101817 0.00623463
-0.0602795 0.0743968 0.0129787
0.0700891 0.00940377 0.00660816
0.0704518 0.00932538 0.00362694
0.0706581 0.00954536 0.000640258
0.0702039 0.00956986 -0.00239566
0.0684739 0.00876931 -0.00553131
0.068426 0.0099093 -0.00821026
0.0659379 0.00877415 -0.00910285
0.0544115 0.0636179 -0.0246885
-0.0110152 0.0828628 -0.0291612
0.0524728 0.0664155 -0.0256802
0.0457978 0.00782397 -0.0186005
0.0435175 0.00677158 -0.0200758
0.0430351 0.00726805 -0.0228305
0.0427433 0.00730089 -0.025445
0.0426075 0.00759184 -0.0278683
0.0414281 0.00670535 -0.0307649
0.040588 0.0078731 -0.0334874
0.0383911 0.00756015 -0.034855
0.0074375 0.0623073 -0.0448284
-0.0382603 0.118479 -0.0388135
-0.0371143 0.13662 -0.0619163
-0.0365852 0.128183 -0.0621242
-0.0166615 0.135288 -0.0257835
-0.0674974 0.0790106 0.00277798
-0.0660687 0.0827751 0.0289052
-0.0681014 0.0788803 0.000711239
-0.0459966 0.125075 -0.0572308
-0.0271029 0.102632 -0.00858132
-0.0112908 0.118558 -0.0163131
0.071768 0.0103024 0.00374123
0.0704794 0.0103496 -0.00534859
0.0657536 0.0101521 -0.0114566
0.0530895 0.0633957 -0.0258251
0.047641 0.0666915 -0.0290448
0.0212984 0.0865121 -0.0246133
0.0445746 0.00833806 -0.0214586
0.0423993 0.0081998 -0.0306918
0.0397331 0.0732454 -0.0285177
-0.0112407 0.00256931 -0.0472695
-0.0506075 0.0331246 0.00911323
-0.0509838 0.119399 -0.0396317
-0.0618456 0.106904 -0.0174621
-0.0732354 0.0891093 0.0114419
-0.0367982 0.12877 -0.0470751
0.0106627 0.128998 -0.0285837
-0.0344402 0.138547 -0.0713144
-0.0677111 0.0778597 0.0199661
-0.0312863 0.108586 0.00319093
0.0141197 0.132467 -0.0338867
0.0728426 0.0123894 0.00988075
0.0734905 0.0123277 0.00711722
0.0734522 0.0118117 0.00389444
0.073818 0.0122781 0.000677065
0.0737515 0.0126291 -0.00207966
0.0720718 0.0118168 -0.00522065
0.0712832 0.01253 -0.00823026
0.069711 0.0117446 -0.00934162
0.0683862 0.0122014 -0.011402
0.0664906 0.0116064 -0.0126376
0.0211848 0.0823537 -0.0291817
0.0484317 0.0102139 -0.0187007
0.046768 0.0100478 -0.0222434
0.0455819 0.00996294 -0.0248484
0.0436774 0.00960463 -0.0276012
0.0430359 0.0103718 -0.0306547
0.0409108 0.0105551 -0.0340315
0.0532567 0.0608547 -0.0267794
0.0718717 0.0330866 -0.00716954
0.0748468 0.0245089 -0.0105704
0.00099091 0.0736577 -0.0362511
-0.0384995 0.127834 -0.0382974
-0.0394151 0.0332685 0.0181938
-0.0376003 0.125759 -0.0655086
-0.033698 0.114692 0.00913917
-0.0274152 0.100121 -0.0148748
-0.0253348 0.0989607 -0.00819225
-0.0278328 0.108783 -0.00855062
-0.00789752 0.0729944 -0.0358954
-0.0376165 0.124818 -0.0593304
-0.0143639 0.116891 -0.0165048
-0.0388091 0.118381 -0.0303297
0.0746777 0.0132963 0.00601625
0.074952 0.0133328 0.00403229
0.0750596 0.0133885 0.00153644
0.0738269 0.0133787 -0.00505068
0.0728455 0.0133308 -0.00710912
0.0704083 0.013196 -0.0102578
0.067389 0.0131163 -0.0134899
0.0509544 0.0108099 -0.017603
0.0485719 0.0115462 -0.0220977
0.0478853 0.0115653 -0.025147
0.0468189 0.0115727 -0.0276891
0.026866 0.0841169 -0.027778
0.00672345 0.0671995 -0.0376967
0.0222357 0.0586369 -0.0468735
-0.00203802 0.0737923 -0.0361424
-0.0700999 0.0947605 -0.0118063
-0.03734 0.128742 -0.044105
-0.0352301 0.136149 -0.0679015
0.0160072 0.137594 -0.0377189
-0.0679231 0.117936 -0.00584831
-0.0379667 0.124773 -0.0621902
-0.0322956 0.108566 0.0061453
-0.0634476 0.0635054 -0.0218051
-0.0479857 0.0328521 0.0120415
-0.0385393 0.123991 -0.0651838
-0.0601072 0.0771188 0.0260092
-0.0736764 0.0873027 -0.0031596
0.0754107 0.0153978 0.0101196
0.0761169 0.0154838 0.00716439
0.0765291 0.0155281 0.0041875
0.0765846 0.0155818 0.00118313
0.0762591 0.0155908 -0.00184497
0.0758324 0.0158085 -0.00421684
0.0749955 0.0152936 -0.00561938
0.0740187 0.0156217 -0.00781081
0.0726782 0.0147142 -0.0091051
0.0715495 0.0154717 -0.0109836
0.0697889 0.0145186 -0.0123121
0.0684174 0.0153964 -0.0138792
-0.0084933 0.0877569 -0.0223503
0.0332309 0.0667786 -0.0336439
0.0515315 0.0552728 -0.0310078
0.051451 0.0136329 -0.0189449
0.0498467 0.0130087 -0.0220004
0.0497318 0.0135022 -0.0246786
0.0493774 0.0137606 -0.027033
0.0471083 0.0136746 -0.0305583
0.0444332 0.0126591 -0.0315774
0.0560382 0.0633732 -0.023311
0.012501 0.0853849 -0.0268465
0.00968508 0.0851905 -0.0267693
0.01639 0.0608554 -0.0467481
0.0622186 0.0577836 -0.0175254
-0.036791 0.131228 -0.0530566
-0.0521538 0.0308942 0.0015436
-0.0262087 0.100315 -0.00853996
-0.0690514 0.0811174 0.00871316
-0.0383849 0.112178 -0.0207999
-0.0278909 0.10193 -0.0141605
0.0459233 0.0855214 -0.0144296
-0.0170092 0.000587355 -0.0464842
0.0510937 0.0145724 -0.0218693
0.0505746 0.0144917 -0.0239362
0.0487364 0.0144858 -0.029551
0.0526398 0.0777081 -0.0171938
0.000631655 0.0860006 -0.0250639
0.00337971 0.0845019 -0.0263475
0.0474118 0.0786055 -0.0211799
0.0141787 0.00264538 -0.0395862
-0.031067 0.0821621 -0.0320066
0.0439894 0.087891 -0.0120356
0.0161856 0.140148 -0.039291
-0.0711469 0.0801075 0.0199651
-0.032629 0.107775 0.00812002
-0.0311952 0.102685 0.00909677
-0.0487173 0.00123911 -0.0236141
-0.0432024 0.109512 -0.0273975
-0.0330512 0.117948 0.00606285
-0.0463143 0.122291 -0.0572905
-0.0286964 0.10309 -0.0149524
-0.067021 0.0784692 0.0239937
0.0767503 0.018153 0.010465
0.0771989 0.0176542 0.00728255
0.0776349 0.0177104 0.00430505
0.0777157 0.0181012 0.00105323
0.0774557 0.0184504 -0.00172243
0.0765891 0.0184185 -0.0047937
0.074929 0.0181972 -0.00811594
0.0737745 0.0184983 -0.0103322
0.072413 0.0179317 -0.0117777
0.0177656 0.0804293 -0.030311
-0.0693974 0.0836475 -0.0130603
0.0540559 0.0161636 -0.0182772
0.0528343 0.0161302 -0.0196709
0.0523324 0.0164244 -0.0217582
0.0519028 0.0168895 -0.0240012
0.0510749 0.0168666 -0.0266665
0.0503863 0.0159713 -0.0279488
0.0497079 0.0166535 -0.0300042
0.0470725 0.016316 -0.0328808
0.00647933 0.0859005 -0.0246852
0.0550261 0.0750391 -0.0167314
0.0500819 0.07243 -0.0239147
0.0686609 0.0330626 -0.00734612
0.0177559 0.0659063 -0.0370286
-0.00587113 0.088897 -0.0194611
-0.0358343 0.131384 -0.0650163
-0.0425296 0.0323589 0.0155087
-0.0173534 0.115698 -0.0136164
-0.0591531 0.0423561 0.0110237
0.0162225 0.138603 -0.0388693
-0.0330399 0.106177 0.0100458
0.0773585 0.0190321 0.00932406
0.0777503 0.0190792 0.00734672
0.0781568 0.0191289 0.00436454
0.0782085 0.0191746 0.00186252
0.0758227 0.0190625 -0.00686406
0.00850863 0.0882911 -0.0216061
0.00979966 0.0821434 -0.0295494
-0.0705973 0.0893219 -0.0119204
0.0552432 0.0184523 -0.0188787
0.0534131 0.0175249 -0.0206727
0.0484257 0.0172942 -0.0321026
0.0063109 0.0846758 -0.026822
-0.00816454 0.0744484 -0.034629
0.0302116 0.0822496 -0.0286063
0.00932942 0.0873731 -0.023297
-0.0391492 0.130503 -0.04124
-0.0569461 0.0379939 0.00916299
-0.0594532 0.0713292 -0.0239171
0.0777941 0.021131 0.010395
0.078543 0.0212107 0.00743936
0.0790048 0.0212721 0.00446232
0.0790425 0.0213092 0.00145384
0.0786552 0.0214579 -0.00137651
0.0780469 0.0205808 -0.00264781
0.077678 0.0212718 -0.00466111
0.0764163 0.0212021 -0.00726907
0.0755577 0.0211566 -0.00883083
0.0742422 0.0217743 -0.0110391
0.07314 0.0203284 -0.0119726
0.0414737 0.0779386 -0.026052
0.0569439 0.0187257 -0.0173623
0.0543065 0.0196211 -0.0217308
0.0529172 0.0194149 -0.0243532
0.0517835 0.019593 -0.0267972
0.0501256 0.0195106 -0.0299524
0.0482953 0.0187042 -0.0320611
-0.00285785 0.089002 -0.0192352
-4.94476E-05 0.0898242 -0.0181866
0.0302119 0.0843856 -0.026897
0.0474977 0.0489754 -0.0354076
-0.0137532 0.0820948 -0.030706
0.0145424 0.0912593 -0.0208241
-0.071273 0.0947711 -0.0093992
-0.0365054 0.128152 -0.0591075
-0.0601098 0.0442379 0.0118231
-0.0647365 0.0451394 -0.000462203
-0.0672986 0.0620813 -0.0134416
-0.0301433 0.103047 0.00630703
-0.0325769 0.117954 0.00385041
0.0772694 0.0217812 0.0123577
-0.00609208 0.00343134 -0.0457633
-0.0411562 0.082832 -0.0284768
-0.074259 0.0899168 0.00435381
0.0577227 0.0214899 -0.0178626
0.0558143 0.0213342 -0.0213394
0.0539875 0.0204685 -0.0235352
0.0473518 0.0192847 -0.0330036
0.046086 0.019969 -0.0352688
0.00481818 0.0583473 -0.0499471
0.00370242 0.0857621 -0.0246608
-0.0639711 0.104018 -0.0170541
0.00721844 0.0734196 -0.0352421
0.00472296 0.0598348 -0.0484639
-0.0688825 0.0792444 0.0231372
-0.0726544 0.0822165 0.0211876
-0.0319072 0.111688 0.00319858
-0.0280716 0.105621 -0.00260307
-0.0298817 0.108645 0.000302921
-0.0121182 0.000265855 0.0347575
-0.0568505 0.0762116 0.0242674
0.0595542 0.0635686 0.0162669
0.0783526 0.0239352 0.0104837
0.0792279 0.0240221 0.00753835
0.0797726 0.0240888 0.00456396
0.0799147 0.0241276 0.00155911
0.0794436 0.0241396 -0.00149077
0.078858 0.0243382 -0.00387725
0.078255 0.023853 -0.00524072
0.0767965 0.0240018 -0.00771331
-0.0289034 0.0717113 -0.0363855
0.056978 0.0229077 -0.0210622
0.0551729 0.0226674 -0.0239032
0.0525245 0.0223312 -0.0268782
0.0501371 0.0221859 -0.0301081
0.0486981 0.0224817 -0.0323415
0.0475228 0.0219446 -0.0337761
0.04653 0.0221476 -0.0356998
0.0335856 0.0591437 -0.0409435
0.0468533 0.0721156 -0.0259854
0.003352 0.0883888 -0.0214693
-0.0110607 0.0740445 -0.0350652
-0.0442348 0.0580571 -0.0356286
-0.061884 0.112451 -0.0144826
-0.0364644 0.131273 -0.0560405
-0.0347656 0.136164 -0.0698757
-0.0641998 0.0630896 -0.0205333
0.0295592 0.0907667 -0.0193973
-0.0285814 0.0905005 -0.0252112
-0.0399432 0.112203 -0.0274069
-0.0702829 0.104058 0.0148445
-0.0714522 0.0812985 -0.000271488
-0.034149 0.0308189 0.0171526
-0.0705993 0.109342 0.00609372
-0.0691164 0.0983721 -0.012485
0.0603447 0.0244498 -0.0150352
0.0595065 0.0252762 -0.0178369
0.0587241 0.0240383 -0.0187694
0.0544663 0.0233251 -0.0254654
0.0511715 0.0230563 -0.0288516
0.0536123 0.0726671 -0.0205885
0.0499311 0.057372 -0.0316008
-0.0727319 0.0866416 -0.00659428
-0.0589914 0.0748931 0.0174956
-0.0410135 0.142294 -0.0735302
-0.0344035 0.136185 -0.0713419
-0.0368915 0.127162 -0.0440948
0.0355115 0.0860967 -0.0234861
-0.035526 0.131422 -0.0679988
0.0475125 0.081358 -0.0181776
-0.0541286 0.0316786 -0.00318812
-0.0367004 0.124489 -0.0503993
-0.0656483 0.0787071 0.00980807
-0.0534648 0.0362485 0.0116042
-0.0119495 0.000861101 0.0364735
0.0786017 0.0267181 0.0105464
0.0795375 0.0268085 0.00760342
0.0800195 0.0268727 0.00462183
0.0801692 0.0269059 0.00160767
0.0796287 0.0269052 -0.001445
0.0789248 0.0266525 -0.00386154
0.0783127 0.0270858 -0.00522292
0.0767609 0.0271119 -0.00727362
-0.0552645 0.0685418 -0.0286915
-0.0577691 0.0711093 -0.0256018
-0.0348962 0.103531 -0.0218411
0.0581705 0.0252829 -0.0211517
0.057144 0.0257991 -0.0229302
0.0560374 0.0254962 -0.0243731
0.0549602 0.025591 -0.0262379
0.0533458 0.0247203 -0.0279608
0.0523879 0.0255248 -0.0293483
0.0508217 0.0251943 -0.0308255
0.0496045 0.0252808 -0.0327325
0.0484127 0.0243557 -0.0340628
0.0469443 0.0255709 -0.0356568
0.0406678 0.0868538 -0.0180846
-0.0255486 0.079861 -0.0329998
0.0431054 0.0859721 -0.0170352
-0.0378188 0.120794 -0.0362357
-0.0392824 0.112849 -0.0224612
0.0633778 0.0276337 -0.0122318
-0.0413191 0.000989188 0.0264254
-0.0564705 0.0389308 0.0115727
-0.0525626 0.03019 -0.00297231
-0.0616207 0.0417783 0.00227582
-0.0299016 0.103107 -0.0169334
-0.0580134 0.112388 -0.0196773
-0.067368 0.0593673 -0.0134678
0.0608884 0.0271712 -0.0153801
0.0605417 0.0282706 -0.0177763
0.0592268 0.0263976 -0.0200575
0.071925 0.0298793 -0.00992741
-0.0738583 0.0863982 0.0143754
-0.0418386 0.122721 -0.0683575
-0.0386804 0.0303737 0.0145198
-0.0360458 0.133721 -0.0619827
-0.0377436 0.127917 -0.0411384
-0.0585385 0.0362119 -0.0030088
-0.0375528 0.123918 -0.0371719
-0.060284 0.0408355 0.00583601
-0.0645194 0.0778708 0.0117177
0.0795381 0.0295801 0.00764337
0.0799428 0.0296369 0.00465443
0.0798058 0.029661 0.00162165
0.0791887 0.0296495 -0.00144092
0.0787197 0.0289441 -0.00349443
0.0781352 0.0300735 -0.00469939
0.0769264 0.0301115 -0.00665833
-0.0646143 0.1125 -0.0111517
-0.0630819 0.112464 -0.0125583
-0.0721579 0.0839233 -0.00657769
0.0597197 0.0285335 -0.0199892
0.0588201 0.0282403 -0.0214219
0.0576488 0.0287643 -0.0231765
0.0563803 0.0276184 -0.024347
0.0554577 0.0282852 -0.0264025
0.0542266 0.0282363 -0.0284709
0.0526383 0.027921 -0.0298939
0.0495899 0.0280642 -0.0325923
-0.0698227 0.104201 0.00284354
-0.0705058 0.100626 0.0147907
-0.0715119 0.0812468 -0.00360034
0.0422475 0.0636373 -0.0335921
-0.073825 0.0940618 -9.14959E-05
-0.0376107 0.120826 -0.0387245
0.0536242 0.0516796 -0.0301118
-0.0575142 0.0444029 0.015433
-0.0572618 0.079003 0.0300149
-0.0188762 0.115678 -0.0117099
-0.052487 0.118958 -0.0279793
-0.0300129 0.105655 0.00344561
-0.0564557 0.112355 -0.0210491
0.0616561 0.0297908 -0.0154727
0.0508203 0.028836 -0.0311381
-0.0595769 0.112647 -0.0179597
-0.0601424 0.114486 -0.0163046
-0.0168393 0.0855498 -0.0284787
-0.0554666 0.106316 -0.0234307
-0.0437069 0.148509 -0.0732451
0.0360284 0.0758047 -0.0297676
0.0181924 0.0912437 -0.0206461
0.0033529 0.0750419 -0.0353991
-0.0356829 0.133749 -0.0649669
-0.0181326 0.00221489 0.0318085
-0.0516499 0.142731 -0.0630541
-0.0437164 0.00119688 0.0255823
-0.0674247 0.0795574 0.00540632
0.0448372 0.0522366 -0.0362256
-0.0704058 0.109465 0.00861392
-0.051453 0.040799 0.0186784
-0.0567932 0.034893 -0.00316699
0.0780593 0.03189 0.0103379
0.0785812 0.0329376 0.00758063
0.0790512 0.03301 0.00465941
0.0790183 0.0328971 0.00172105
0.0788106 0.0321682 -0.000770779
0.0779219 0.0335019 -0.00167147
0.0771421 0.0331626 -0.00382747
-0.0423672 0.130789 -0.068442
-0.0512918 0.112396 -0.0275057
-0.0737327 0.091806 0.0196802
-0.0138584 0.0743153 -0.0354721
-0.0707847 0.0823243 0.00538205
0.0634337 0.0301757 -0.0114283
0.0621796 0.030925 -0.0144822
0.0614361 0.0314336 -0.0178056
0.0602507 0.0315186 -0.0207114
0.0593404 0.0306351 -0.0219821
0.0584084 0.0312868 -0.0235599
0.0559922 0.0310048 -0.0265037
0.0545888 0.0310783 -0.0283876
0.0535599 0.0310234 -0.029436
0.0508528 0.0308412 -0.0308904
0.0496444 0.030782 -0.0322942
0.048149 0.0313429 -0.0340695
-0.0356044 0.142527 -0.0777312
-0.0448718 0.122319 -0.0632002
-0.0728491 0.0942959 0.0193672
-0.0742274 0.0863777 0.0168521
-0.0706308 0.0980082 -0.00919198
-0.0414908 0.127973 -0.0709333
-0.0539129 0.0321159 1.64006E-05
0.0127267 0.0819178 -0.0293605
-0.0578775 0.0413538 0.0122121
-0.0441768 0.115123 -0.048126
-0.0694004 0.081146 0.00537491
-0.0292085 0.10475 0.00229229
-0.0538177 0.0352938 0.00918341
-0.0685248 0.0661654 -0.00947774
0.0216821 0.0767752 -0.0327304
-0.0498415 0.11659 -0.0427048
0.0634844 0.0334533 -0.0116668
0.0628756 0.0337705 -0.0145295
0.0572596 0.0319199 -0.0251899
-0.0349469 0.0917095 -0.0241368
0.0417001 0.0665245 -0.0329214
-0.00815259 0.0832556 -0.0286264
0.0475372 0.0852922 -0.011834
-0.0262163 0.129855 -0.0206511
-0.0279015 0.129183 -0.0195288
-0.052345 0.133958 -0.0543831
-0.0376538 0.122349 -0.036198
-0.054829 0.0802768 0.032233
-0.0416499 0.0266704 0.0036133
0.00854369 0.152557 -0.0342985
-0.0113907 0.0884693 -0.0224866
0.0624218 0.0345229 -0.0170232
0.0617512 0.0340256 -0.0184186
0.0609349 0.0342211 -0.0203346
0.0600928 0.034183 -0.021903
0.0588162 0.0341197 -0.0235116
0.0574393 0.0340477 -0.0251499
0.0561158 0.033977 -0.0267482
0.0546346 0.0338978 -0.0283301
0.0526218 0.0337744 -0.0300534
0.0500576 0.033891 -0.0332299
0.0156442 0.0667239 -0.0372026
-0.0496124 0.130328 -0.0517221
-0.072909 0.0946005 0.00852205
-0.0511013 0.0774903 0.0249227
-0.00830979 0.00626422 -0.0462044
-0.017412 0.115466 -0.0165799
-0.0486277 0.0449041 0.0228793
-0.0653849 0.0777172 0.0232736
-0.0662776 0.106998 -0.00936378
-0.0492957 0.125136 -0.0452596
0.0620263 0.0672585 -0.00921564
-0.0664933 0.0740884 -0.00321728
0.0641573 0.0368504 -0.0113531
0.0516535 0.0344417 -0.0315665
0.0356153 0.087464 -0.021536
-0.0643134 0.109583 -0.0114887
-0.0641409 0.0951529 -0.0206903
-0.0352513 0.133785 -0.0679401
-0.0165926 0.0887101 -0.0261998
-0.056576 0.073929 0.0182548
-0.0482034 0.12488 -0.0485805
-0.0534397 0.115824 -0.026825
-0.0732407 0.0917794 0.0144803
0.0649946 0.036541 -0.00848773
0.0634785 0.0371335 -0.0145608
0.0626014 0.0371011 -0.0171347
0.0618381 0.0370688 -0.0186837
0.0607136 0.0371587 -0.0205991
0.0599894 0.0362821 -0.0218634
0.0582287 0.0368952 -0.0235316
0.0571078 0.0361398 -0.025147
0.0560868 0.0369261 -0.0264034
0.0547838 0.0367205 -0.0282987
0.0534338 0.0366492 -0.0299035
0.052245 0.0365842 -0.0315248
0.0508486 0.0371366 -0.0333604
0.0362825 0.0551485 -0.0419192
-0.00306722 0.0859596 -0.0248659
-0.0512397 0.0348749 0.0120041
-0.0612197 0.0734196 0.0116306
-0.0541208 0.0775571 0.0275827
-0.034014 0.141747 -0.0742418
-0.00711431 0.138209 -0.0302435
-0.0708195 0.100591 0.0177734
-0.0385605 0.122711 -0.0586027
0.0635203 0.0535396 0.0125463
0.0143411 0.146968 -0.0402424
0.066069 0.0393226 -0.00543274
0.065496 0.039701 -0.00819512
0.0391171 0.0551566 -0.0395382
0.00924662 0.0901105 -0.0200096
-0.0316528 0.0211087 -0.00131997
-0.0171948 0.0874619 -0.0275016
-0.0648338 0.0788713 -0.0146138
-0.059746 0.0415042 0.00856283
-0.0375913 0.125505 -0.0381541
-0.0622445 0.0763938 0.0144613
-0.0695911 0.104267 -0.00315512
-0.0554107 0.0334293 -0.0030372
0.0663577 0.0393946 -0.00229756
0.0649462 0.0399916 -0.0108901
0.0644309 0.0399751 -0.0124332
0.063625 0.0399436 -0.0145082
0.0627755 0.0399076 -0.0165371
0.0618495 0.0398683 -0.0181534
0.0605158 0.0398098 -0.0202862
0.0583074 0.0396972 -0.0229474
0.0561574 0.0395996 -0.0261332
0.0546028 0.0395266 -0.0287748
0.0537403 0.0394966 -0.0303028
0.0524391 0.0399761 -0.0318809
-0.0140719 0.0880673 -0.0249564
-0.0599693 0.0685142 -0.0247896
-0.0250385 0.126389 -0.0223754
0.0499837 0.0816394 -0.015027
-0.0348429 0.133815 -0.0704186
0.0641428 0.063021 -0.00209749
-0.0413372 0.0276456 0.00622036
-0.0612656 0.0423062 0.00549821
0.0144558 0.1459 -0.0416472
-0.0416154 0.125215 -0.070521
-0.0474607 0.0338622 0.0144068
0.066139 0.0394581 0.00338846
0.066254 0.0397808 0.00060564
-0.0618267 0.0631913 -0.0240221
-5.59427E-05 0.149461 -0.0289549
-0.0612936 0.0685888 -0.0234069
0.0192337 0.0654932 -0.0376793
-0.0344942 0.13383 -0.0718951
-0.013982 0.0647347 -0.0380431
-0.0707722 0.109741 0.00181609
-0.0435115 0.133365 -0.066338
-0.0724727 0.083498 0.00246154
0.0629992 0.054347 0.0137223
-0.0500645 0.111322 -0.0287065
0.0106288 0.0610315 -0.0472921
-0.00331578 0.121824 -0.0195006
-0.0452962 0.146323 -0.0719839
0.0442246 0.0845374 -0.0180817
-0.0458349 0.117512 -0.0593746
0.0661248 0.0427438 0.000767987
0.0662104 0.0427799 -0.00223125
0.066097 0.0428041 -0.00524209
0.0657322 0.0428115 -0.00827368
0.0652492 0.042808 -0.0108092
0.0647174 0.0427905 -0.0123585
0.0637812 0.0427568 -0.014426
0.0627463 0.042717 -0.016519
0.0617561 0.0426744 -0.0181009
0.0604525 0.042768 -0.0205036
0.0586549 0.0423917 -0.0230904
0.0576002 0.0424996 -0.0249444
0.0563497 0.0424395 -0.0265463
0.0550957 0.042371 -0.0286889
0.0538606 0.0427755 -0.0303925
0.0527133 0.0426592 -0.0314979
-0.0446282 0.130897 -0.062894
-0.0674966 0.104278 -0.00899832
4.8466E-06 0.146565 -0.0318608
-0.0634078 0.071518 -0.0182386
-0.0342438 0.133828 -0.0733978
-0.0478185 0.114918 -0.0426597
-0.0260524 0.10042 -0.00571509
-0.0168596 0.0651583 -0.0377746
0.0286873 0.0591232 -0.0442128
-0.068086 0.0919832 -0.0151806
-0.0261054 0.110819 -0.0113754
-0.0289133 0.0915892 -0.0237961
-0.0627975 0.0686628 -0.0210261
-0.0515103 0.115854 -0.0336919
-0.0732893 0.0918645 0.00846402
-0.0694466 0.0627006 -0.000572668
-0.0704769 0.109716 0.0033467
-0.0636779 0.0693757 -0.0190902
0.0263785 0.0883718 -0.0228581
-0.0385199 0.133528 -0.0499535
-0.0481423 0.0318134 0.00963443
-0.0294569 0.106334 0.00131336
0.0653107 0.0454287 0.0067537
0.0657081 0.0454832 0.00377859
0.0661047 0.0455388 0.00080443
0.0662427 0.0455769 -0.00218729
0.0661241 0.045597 -0.00519609
0.0656743 0.045599 -0.00823751
0.0651047 0.0453565 -0.010621
0.0646275 0.045825 -0.0119885
0.0638832 0.0455638 -0.0143902
0.062856 0.0455388 -0.0169632
0.06218 0.0455224 -0.0185267
0.06161 0.045503 -0.0200764
0.0605735 0.0456144 -0.0224478
0.0593905 0.0447155 -0.0237579
0.0584787 0.0455327 -0.0255938
0.0569342 0.0446076 -0.0269308
0.0558602 0.0455937 -0.0286418
0.0533598 0.0458288 -0.0303636
-0.0622891 0.109832 -0.0147434
-0.0441587 0.125347 -0.0637673
-0.05333 0.117899 -0.0253146
-0.0433597 0.130775 -0.0660025
-0.0517595 0.131426 -0.0511199
-0.0569525 0.0798929 -0.0216197
-0.0590721 0.0802889 -0.0207279
-0.0401463 0.0631242 -0.0359669
-0.0381158 0.134039 -0.0528713
-0.0583692 0.0391807 0.00829211
-0.0397971 0.122839 -0.0684221
-0.046353 0.109141 -0.0273823
-0.0146303 0.0132433 -0.0389026
-0.0426772 0.125124 -0.0685281
-0.059735 0.109887 -0.0180195
-0.0546048 0.112321 -0.0224347
-0.0527457 0.131129 -0.0398352
0.0239142 0.0880499 -0.0231224
-0.0374223 0.133895 -0.0558303
-0.0464089 0.0278205 0.00220279
-0.02825 0.108063 -0.0126315
0.0630476 0.0480174 0.0151328
0.063947 0.0480925 0.012699
0.0646213 0.0481579 0.00975021
0.0650791 0.0482134 0.00677696
0.06551 0.0482688 0.00380225
0.0659428 0.048324 0.000830809
0.066112 0.048365 -0.00215535
0.0658608 0.0483797 -0.0051755
0.0652804 0.048371 -0.00821827
0.0649802 0.0486264 -0.0105929
0.064735 0.0481551 -0.0119637
0.0563595 0.0487414 -0.0285854
-0.032142 0.0915454 -0.0234912
0.0217038 0.0639145 -0.0406478
-0.0228555 0.0894642 -0.0268693
-0.0347515 0.0362238 0.0212513
-0.0151765 0.0939142 -0.00797061
-0.0186515 0.0945992 -0.00499146
-0.0622193 0.120928 -0.00526382
-0.0472395 0.122589 -0.00739746
-0.0505298 0.112987 -0.0301329
-0.0113086 0.0896276 0.006756
-0.0365768 0.147427 -0.0757802
-0.0381501 0.147744 -0.0760306
-0.0259126 0.0966743 0.0058823
-0.0289679 0.100047 0.00849404
-0.0385551 0.148181 -0.0738072
-0.0172928 0.0899127 0.00912301
-0.0365959 0.145035 -0.0715904
-0.0372819 0.14667 -0.0723811
-0.0231438 0.0956343 -0.0116756
-0.0248187 0.0963117 -0.0136264
-0.0382145 0.145723 -0.0703257
-0.0394984 0.147832 -0.071508
-0.0645158 0.120077 -0.00550492
-0.0419097 0.148595 -0.070719
-0.0447592 0.148733 -0.0716565
-0.0382635 0.143097 -0.0674706
-0.0396968 0.145375 -0.0684141
-0.0420572 0.147563 -0.0690747
-0.0530444 0.125363 -0.0394844
-0.0422583 0.12257 0.00208642
-0.0303846 0.100984 0.0101148
-0.0583437 0.117099 0.0182804
-0.0419425 0.146384 -0.0676309
-0.0449303 0.148114 -0.0683511
-0.0231655 0.0885948 0.00954395
-0.0524182 0.119196 0.016569
-0.0208906 0.0951674 -0.00831755
-0.0223967 0.0958017 -0.0080056
-0.0239924 0.0969532 -0.00884412
-0.0632223 0.11974 -0.00871981
-0.0574558 0.120199 0.0123976
-0.0400366 0.122462 -0.00290549
-0.0238245 0.133438 -0.0125122
-0.0383023 0.140665 -0.0646871
-0.0394936 0.142402 -0.0652002
-0.0403805 0.144225 -0.0663287
-0.0423929 0.144945 -0.0655034
-0.047149 0.147791 -0.0686901
0.0384494 0.0887228 0.0167008
-0.0534913 0.122908 -0.0012743
0.0478661 0.0577186 -0.0327392
-0.0141072 0.0886158 0.0100805
-0.0482378 0.12223 -0.0484165
-0.0456523 0.122311 -0.0602476
-0.0278331 0.0999862 0.00596982
0.000479817 0.0619674 0.035535
-0.0446876 0.122689 -0.00349239
-0.0586875 0.119296 0.0138094
-0.061851 0.120445 -0.00812383
-0.0442057 0.123098 -0.0215813
0.0136705 0.148593 -0.0403942
0.0181739 0.0866535 -0.0249501
-0.0464363 0.111115 -0.0327295
-0.0628927 0.121009 0.000493287
-0.0414037 0.143362 -0.0643206
-0.0451291 0.146297 -0.0655054
-0.0464043 0.125872 -0.0230964
0.00384271 0.0622901 0.0369952
-0.00856124 0.0862127 0.0126062
-0.0554165 0.119527 0.0152194
-0.016622 0.0911579 0.00661482
-0.0494562 0.085783 -0.0263069
-0.0537869 0.122661 0.00421226
-0.0593061 0.119319 -0.0141544
-0.0511468 0.126245 -0.0254113
-0.0227139 0.0932481 0.0027237
0.00139699 0.0932353 0.00249491
-0.0219476 0.0897888 0.00805228
-0.0380768 0.13869 -0.0623648
-0.0393697 0.139937 -0.0619349
-0.0401931 0.141683 -0.0632902
-0.0472469 0.147312 -0.0664386
-0.0484522 0.146426 -0.0655681
-0.0499995 0.146112 -0.0679191
-0.0010941 0.0924929 0.00176375
-0.0653032 0.118291 -0.00875479
-0.0430275 0.118669 0.017633
-0.0564202 0.122043 -0.00768926
-0.0400431 0.120826 0.0113376
-0.0461479 0.12248 0.00747887
-0.0503971 0.118948 0.0174348
-0.0109386 0.0887269 0.00793599
-0.0021763 0.0912226 0.00557188
-0.014059 0.0895859 0.0085508
0.0302594 0.0936826 0.0138121
-0.0227164 0.0907267 0.00641965
-0.0027753 0.0918592 0.00226052
-0.0196522 0.0927479 0.00294873
-0.0229852 0.0559042 -0.0385261
0.0400158 0.0883587 0.0163647
-0.0359777 0.124672 -0.0123195
-0.0495807 0.122497 -0.0130672
0.0105355 0.151598 -0.0376389
0.0558226 0.0660388 -0.0228439
-0.0424242 0.142551 -0.0621725
-0.0451823 0.144782 -0.063314
0.0267761 0.0917793 0.0179078
-0.0136485 0.0926617 0.000797828
0.029582 0.0943347 0.0125079
0.04638 0.0830861 -0.01776
0.0657004 0.0299213 -0.0101639
-0.0466762 0.119744 0.0159757
-0.0585947 0.120795 -0.010944
-0.0623173 0.118806 -0.0117076
-0.0384268 0.119516 0.0143538
-0.00741539 0.0914768 -0.00121145
-0.0364906 0.121507 0.00268865
-0.0253189 0.0936871 0.00614959
-0.0674804 0.115142 -0.00862419
0.0427768 0.0850548 0.0192813
8.34744E-05 0.0882729 -0.0215108
-0.0660207 0.0714618 -0.0122253
-0.0242811 0.129406 -0.0223368
0.0178759 0.0900753 -0.0221026
0.0358199 0.0898031 0.0169417
0.0346589 0.091544 0.0155657
0.00906658 0.15186 -0.0371609
-0.0404214 0.119391 0.0157207
-0.0388218 0.137469 -0.0587084
-0.0403158 0.139626 -0.0597228
-0.0451801 0.143852 -0.0618407
-0.0479106 0.145127 -0.0629591
-0.0504728 0.145417 -0.0657311
-0.0551927 0.12251 0.00384602
-0.0175353 0.0120837 -0.0389015
-0.0113388 0.0875615 0.010193
0.0270546 0.094586 0.012841
-0.0475209 0.122817 -0.00431482
-0.0498255 0.122767 -0.00705626
-0.0326958 0.126175 -0.0092837
0.0244775 0.0955948 0.0101774
-0.0683524 0.101579 -0.0121045
-0.0679903 0.0629815 -0.0121899
0.0217123 0.095551 0.0101561
-0.0639619 0.0653244 -0.0201255
-0.054149 0.0661225 -0.0303444
-0.0171604 0.0914885 -0.0227332
-0.0494481 0.0976327 -0.0263339
-0.0718752 0.0843706 0.00849231
-0.0507383 0.122619 -0.00846803
-0.0198234 0.0898547 0.00900871
0.0159508 0.0958319 0.00642741
-0.042051 0.140419 -0.0586677
-0.0434267 0.141783 -0.0596802
-0.0457131 0.142775 -0.059407
-0.0501893 0.144746 -0.0634456
-0.067797 0.0660228 -0.0122248
-0.0390526 0.0837304 -0.0286572
-0.0485824 0.122807 -0.00599782
0.013104 0.0955039 0.00662412
0.0128819 0.0649439 0.0347749
-0.0318289 0.117261 0.00236307
-0.048715 0.125714 -0.04741
-0.0686204 0.0627898 -0.00952433
-0.0719531 0.0817709 0.0134947
-0.0605491 0.0787128 -0.0187522
-0.0574444 0.106405 -0.0222405
-0.0244403 0.091439 0.00613964
0.00793067 0.0950141 0.00261066
0.0065656 0.0945361 0.00349324
0.00450399 0.0940782 0.00240202
-0.0383226 0.135537 -0.0560028
-0.0395775 0.137177 -0.0561594
-0.0408117 0.138831 -0.0571003
-0.0486668 0.14328 -0.0600014
-0.0490803 0.14421 -0.0614629
0.0367635 0.0904865 0.0150522
-0.0540281 0.119052 -0.0245065
-0.0706992 0.0818799 -0.00897958
-0.0561529 0.121596 -0.0105083
0.0166788 0.0880498 0.0223494
0.0148901 0.0947747 0.0115237
-0.0549732 0.0600564 -0.0315701
-0.0499896 0.11299 -0.0315932
-0.0709045 0.112475 0.00284108
-0.0534381 0.122528 -0.033526
0.0525912 0.0810406 -0.0113607
-0.0570951 0.0663278 -0.0276626
-0.058315 0.0684267 -0.0261753
-0.0590074 0.0779581 -0.0202905
-0.0530382 0.0773775 -0.026113
-0.0554302 0.122739 -0.00228407
-0.00480819 0.0918727 -0.00168826
-0.0682126 0.109781 -0.00596543
-0.0428612 0.139995 -0.0564256
-0.0459892 0.141664 -0.0570125
-0.0513491 0.142261 -0.0603922
0.0761247 0.0354799 -0.0012189
-0.031234 0.127069 -0.0173267
-0.012799 0.0930891 -0.00481879
-0.0534769 0.116489 0.0207702
0.0179146 0.0890701 0.021043
-0.0222449 0.0941925 0.000614019
0.049383 0.0837715 -0.011916
0.0491883 0.0830987 -0.0138864
-0.0685809 0.104276 -0.00607307
-0.0567643 0.0683363 -0.0275534
-0.0532413 0.136596 -0.0545098
-0.0533987 0.122515 -0.00755088
-0.061128 0.120258 -0.0100729
-0.018487 0.0947107 -0.0079657
-0.0388879 0.135594 -0.0537826
-0.0404763 0.13712 -0.0533858
-0.0415199 0.138598 -0.0549603
-0.0453066 0.140876 -0.0559751
-0.0486325 0.141986 -0.0573859
0.0768701 0.0356329 0.00163224
0.0741297 0.0360259 -0.00199167
-0.0552464 0.109257 -0.022918
-0.0466108 0.118993 0.0175621
-0.0270863 0.097991 0.00710329
-0.0626718 0.0763029 0.00969159
-0.0131979 0.0930271 -0.00199261
0.0566565 0.0768613 -0.007371
0.0556139 0.0784156 -0.00805493
0.0543803 0.0800825 -0.00859716
0.0530385 0.0815766 -0.0084484
0.0513768 0.0825017 -0.0107947
-0.00381247 0.0558607 -0.0481983
-0.0323937 0.127452 -0.0152227
-0.0665195 0.0712488 0.00274666
-0.0429009 0.122492 -0.00494143
-0.0433381 0.139216 -0.0536857
-0.0461233 0.14022 -0.053715
0.0738542 0.0370466 0.00132538
0.0712913 0.0363812 -0.00204087
-0.0194974 0.0921257 0.00453829
-0.00987288 0.0918103 -0.00143369
-0.0119063 0.0855122 0.0134246
0.0334917 0.0876299 0.020961
-0.0254276 0.131939 -0.0117137
0.0514291 0.0830599 -0.00828036
0.0497339 0.084316 -0.00920596
0.046105 0.0864434 -0.0118186
-0.0636128 0.0612593 -0.0221908
-0.0642591 0.0599267 -0.0209583
-0.0741608 0.0912647 0.00438528
-0.0568892 0.108902 -0.0220922
-0.068429 0.0663255 0.00303638
0.0464352 0.0807549 -0.0204439
-0.0458103 0.119109 -0.0603954
-0.0452112 0.125094 -0.06018
-0.0559442 0.0776471 -0.0231714
-0.0721581 0.0839952 0.00528968
-0.0368331 0.0327569 0.0185814
-0.0679827 0.0593915 -0.0120078
0.00247653 0.150179 -0.0318629
-0.0392606 0.134975 -0.0510055
-0.0406379 0.136437 -0.0507655
-0.0488226 0.140437 -0.0542199
-0.0498222 0.140756 -0.0559029
-0.0407961 0.118645 -0.0186788
0.0766483 0.0359261 0.00459507
0.0710316 0.037292 0.00120247
0.0682545 0.0371739 0.000730041
0.0681964 0.0364319 -0.00228595
-0.0665666 0.0944736 -0.0173744
-0.0135536 0.0859125 0.0134452
-0.0357606 0.12288 -0.00622032
-0.0329435 0.123211 -0.00583623
-0.0320263 0.121985 -0.00453352
-0.0664554 0.11968 0.000526267
0.0591153 0.0736031 -0.00430469
